ply
format ascii 1.0
element vertex 1251
property float x
property float y
property float z
property uchar red
property uchar green
property uchar blue
end_header
66.1303 -27.3727 9.13105  255 255 255
-29.278 -9.443 15.9273  255 255 255
17.2959 -29.0924 34.6087  255 255 255
-28.9013 -15.0043 12.2827  255 255 255
-26.6553 -19.9762 26.3795  255 255 255
-24.0381 -21.9109 30.3133  255 255 255
-26.3421 -20.9695 26.0876  255 255 255
-24.2432 -24.0788 31.585  255 255 255
6.07252 -33.4459 37.8882  255 255 255
-28.9652 -18.7018 15.1276  255 255 255
-18.2326 -27.2756 34.001  255 255 255
-38.5456 -10.3592 -18.6661  255 255 255
-28.9257 -24.882 18.1351  255 255 255
-42.1747 -14.6848 -12.9118  255 255 255
-24.6795 -27.9737 25.7001  255 255 255
-16.4326 -32.4425 31.9111  255 255 255
-26.929 -26.9753 19.507  255 255 255
36.2788 -43.0589 13.934  255 255 255
-18.0596 -33.9196 29.1078  255 255 255
-0.444841 -40.1753 31.4539  255 255 255
-57.385 -24.1147 -1.14425  255 255 255
-57.3534 -24.1504 -1.62732  255 255 255
-6.42149 -42.5604 29.3064  255 255 255
-56.9214 -28.9592 3.61761  255 255 255
9.27535 -52.4599 29.446  255 255 255
-52.781 -35.5978 11.4137  255 255 255
2.09775 -55.0719 31.2331  255 255 255
7.86421 -63.6915 39.3746  255 255 255
-0.523031 -61.6798 37.6294  255 255 255
0.771192 -62.1257 37.6678  255 255 255
-6.66211 89.8459 -34.0581  255 255 255
27.8295 99.23 -53.758  255 255 255
4.1513 91.025 -42.7259  255 255 255
49.4295 37.6019 16.1087  255 255 255
49.6425 58.5178 -12.5876  255 255 255
-39.0291 73.2572 -23.5005  255 255 255
49.5149 55.0036 -15.2782  255 255 255
-6.4778 81.2314 -44.1441  255 255 255
-2.27125 80.8871 -47.1492  255 255 255
20.4168 85.9428 -59.8788  255 255 255
38.1488 88.4387 -72.0478  255 255 255
55.8182 38.4424 -5.69097  255 255 255
49.1431 28.3225 8.35843  255 255 255
-36.5662 64.6279 -33.5309  255 255 255
50.3544 25.3529 9.46372  255 255 255
51.1619 24.3717 10.5008  255 255 255
48.7496 23.283 4.24703  255 255 255
26.4343 74.2711 -75.2991  255 255 255
58.0228 10.5568 16.231  255 255 255
50.6895 33.612 -24.1498  255 255 255
50.6895 33.612 -24.1498  255 255 255
20.959 65.1433 -78.1002  255 255 255
46.9004 68.5253 -96.0135  255 255 255
47.528 14.1355 -2.58413  255 255 255
54.8415 21.885 -24.0735  255 255 255
58.2499 0.708982 11.4339  255 255 255
44.9767 59.5818 -101.488  255 255 255
52.9349 5.72378 2.28937  255 255 255
52.9349 5.72378 2.28937  255 255 255
-27.0999 47.049 -56.3331  255 255 255
18.4915 52.264 -89.5989  255 255 255
15.5289 50.9867 -87.8494  255 255 255
-13.6455 -0.581893 25.3965  255 255 255
-16.6668 42.787 -67.2899  255 255 255
-17.1809 41.9839 -64.9388  255 255 255
49.0318 1.66495 -10.2071  255 255 255
-11.5911 -6.662 30.4663  255 255 255
51.7773 -3.49901 -7.4222  255 255 255
65.868 -12.9979 8.92812  255 255 255
-20.228 -2.66725 12.0349  255 255 255
-18.6332 -3.64268 13.3034  255 255 255
62.2087 -17.801 6.51819  255 255 255
62.1287 -17.8252 6.60482  255 255 255
61.9198 -21.0492 4.36512  255 255 255
-18.2862 -12.482 26.803  255 255 255
-17.4649 -13.3863 27.8907  255 255 255
22.4155 -24.8788 29.3938  255 255 255
66.4572 -28.6982 5.73247  255 255 255
68.2898 -26.9009 -2.63253  255 255 255
-27.5202 -19.6886 24.7221  255 255 255
-24.8854 -23.7168 27.6964  255 255 255
-26.26 -22.8396 25.0346  255 255 255
-5.52852 -34.9378 36.16  255 255 255
11.1645 -37.8048 29.1042  255 255 255
-40.1382 -15.1507 -12.2099  255 255 255
6.84465 -38.8714 31.6293  255 255 255
-5.04334 -36.8714 35.6066  255 255 255
-25.8323 -27.8691 19.6321  255 255 255
-28.254 -27.2566 16.5294  255 255 255
-52.4978 -16.1672 -10.5985  255 255 255
-19.5599 -32.9218 27.9625  255 255 255
-8.74879 -37.9651 31.4104  255 255 255
-1.62203 -40.8371 30.7014  255 255 255
-16.8446 -38.6408 28.3309  255 255 255
-47.6395 -27.12 0.730806  255 255 255
-46.664 -29.932 4.4602  255 255 255
15.191 -51.835 26.5878  255 255 255
2.89474 -49.5853 28.7879  255 255 255
7.14442 -56.0533 30.7726  255 255 255
7.14442 -56.0533 30.7726  255 255 255
50.5039 35.5666 15.1043  255 255 255
-10.425 79.9586 -41.7183  255 255 255
24.7035 89.8318 -61.4402  255 255 255
21.4562 88.9787 -59.9945  255 255 255
2.91445 82.2501 -49.6041  255 255 255
23.9178 86.0983 -62.7353  255 255 255
23.7564 85.8668 -62.2917  255 255 255
58.667 20.1597 23.436  255 255 255
85.1406 97.3284 -96.6277  255 255 255
-18.6648 70.5663 -44.4436  255 255 255
-23.5886 67.9126 -42.2542  255 255 255
48.8962 41.2695 -23.8127  255 255 255
55.0531 81.1686 -90.8256  255 255 255
-7.65143 65.3501 -56.1204  255 255 255
57.2956 30.7668 -14.8365  255 255 255
57.3691 28.4005 -12.8624  255 255 255
18.6306 66.7744 -77.7516  255 255 255
-24.1721 54.7119 -54.1205  255 255 255
57.9112 -4.41631 18.9332  255 255 255
61.5768 -3.40866 15.5861  255 255 255
64.6878 -9.8375 18.9452  255 255 255
-13.9385 43.8785 -73.0214  255 255 255
59.362 -8.4303 7.05838  255 255 255
-0.398192 -14.6234 35.8253  255 255 255
98.8401 -15.7517 -15.8439  255 255 255
-16.5989 -12.8311 30.297  255 255 255
-21.8632 -7.63487 17.8252  255 255 255
-3.44775 -20.1627 35.6718  255 255 255
63.2194 -24.7742 4.07471  255 255 255
63.574 -30.5492 1.64961  255 255 255
65.4342 -32.9666 4.39343  255 255 255
-28.5993 -17.6425 23.4322  255 255 255
-14.4468 -31.8029 35.7555  255 255 255
4.26836 -37.9885 32.3892  255 255 255
9.99854 -39.319 29.0916  255 255 255
-6.29374 -41.4923 30.7133  255 255 255
-15.9347 -39.0007 28.5292  255 255 255
-15.9448 -38.995 28.5982  255 255 255
-16.3774 -41.1661 27.5548  255 255 255
19.1878 -51.563 25.957  255 255 255
16.2713 -52.0364 27.8501  255 255 255
-39.4038 -34.9544 11.8203  255 255 255
-32.4967 -44.2273 21.8934  255 255 255
-10.148 85.1717 -37.6429  255 255 255
51.2266 55.7489 -10.0255  255 255 255
56.0107 38.0538 -1.0691  255 255 255
23.1206 77.0461 -70.2636  255 255 255
23.0998 76.9852 -70.1778  255 255 255
57.9459 79.9866 -96.0062  255 255 255
-70.9139 51.5958 -18.7762  255 255 255
23.5353 71.2573 -76.905  255 255 255
26.3499 69.5879 -79.3004  255 255 255
-7.87768 53.8586 -63.9564  255 255 255
-8.12945 0.707819 25.8293  255 255 255
-17.8651 44.4592 -65.5216  255 255 255
-7.91143 45.3999 -75.4299  255 255 255
-13.1782 -11.1055 31.469  255 255 255
60.1408 -14.6982 3.05787  255 255 255
-23.439 -22.9887 31.2148  255 255 255
-14.7601 -28.1882 36.9597  255 255 255
-25.3911 -28.0514 23.7692  255 255 255
-16.1281 -33.2895 31.8872  255 255 255
-14.0643 -35.2953 31.8306  255 255 255
-20.5908 -33.4454 27.0841  255 255 255
0.294855 -47.626 29.9749  255 255 255
12.3306 95.9666 -46.0785  255 255 255
-4.92308 89.5495 -36.8167  255 255 255
-9.65081 86.9993 -34.9935  255 255 255
15.4157 83.0936 -56.8826  255 255 255
16.4752 85.0152 -59.6976  255 255 255
60.021 72.482 -100.832  255 255 255
54.6563 25.9469 -21.3237  255 255 255
2.53883 52.8333 -76.3917  255 255 255
-4.75742 -7.11632 32.9432  255 255 255
-24.1795 -26.599 25.168  255 255 255
12.8862 -48.3721 25.5532  255 255 255
12.8862 -48.3721 25.5532  255 255 255
17.0039 95.593 -49.0299  255 255 255
0.347505 89.8609 -41.0399  255 255 255
0.345318 89.8658 -41.0348  255 255 255
-31.7324 76.4535 -25.6578  255 255 255
19.5687 93.1123 -55.492  255 255 255
54.6007 43.4512 3.77441  255 255 255
-0.879907 78.0016 -49.3872  255 255 255
-1.14971 74.0878 -54.1534  255 255 255
-1.23306 73.9643 -53.8293  255 255 255
-26.2465 -21.1726 26.7479  255 255 255
-0.534743 -37.2081 33.8848  255 255 255
-3.7646 -38.9454 32.5701  255 255 255
7.30851 -46.0847 31.9713  255 255 255
0.443457 86.1953 -44.7354  255 255 255
53.0798 53.4196 -8.92346  255 255 255
53.5851 43.6872 -12.1114  255 255 255
16.858 76.0261 -69.5621  255 255 255
-21.177 63.5055 -48.6651  255 255 255
36.897 64.7955 -92.7134  255 255 255
49.3186 65.4134 -100.186  255 255 255
-1.77121 52.6613 -78.2824  255 255 255
-3.3691 45.9509 -76.4959  255 255 255
-29.1592 41.5292 -61.671  255 255 255
-18.2114 -13.1919 26.885  255 255 255
-22.9705 -12.8448 24.2532  255 255 255
-26.4546 -18.5958 27.3054  255 255 255
7.56948 -43.5535 30.8816  255 255 255
51.5946 86.6942 -86.5402  255 255 255
-24.5383 50.9042 -54.5434  255 255 255
-12.9341 44.8296 -69.3748  255 255 255
-12.903 45.0461 -69.828  255 255 255
-15.9685 54.4434 -60.4564  255 255 255
9.68297 75.9456 -68.2927  255 255 255
-20.435 120.667 -32.9369  255 255 255
17.9198 135.011 -48.6577  255 255 255
15.9984 134.283 -48.6358  255 255 255
18.183 134.355 -49.337  255 255 255
16.7022 133.902 -49.8829  255 255 255
16.0078 132.203 -50.6269  255 255 255
104.239 226.014 -168.063  255 255 255
16.7919 119.532 -51.9437  255 255 255
-24.1125 94.2208 -31.8856  255 255 255
39.2457 103.853 -56.5998  255 255 255
27.7522 99.5561 -53.6601  255 255 255
9.6729 93.8044 -44.8569  255 255 255
-5.63004 86.57 -39.4182  255 255 255
48.5564 60.9214 -11.882  255 255 255
-10.2165 85.1298 -37.2674  255 255 255
53.6333 53.9067 -3.55469  255 255 255
-4.08103 85.1037 -41.7335  255 255 255
49.8558 36.6842 16.6785  255 255 255
7.55567 87.9634 -47.5646  255 255 255
56.259 49.605 -1.98571  255 255 255
53.1933 33.9214 19.4475  255 255 255
48.564 58.5311 -14.6143  255 255 255
89.1991 109.04 -89.922  255 255 255
41.6719 99.5539 -72.6173  255 255 255
49.7481 35.1913 12.3498  255 255 255
-14.0978 78.9668 -39.6749  255 255 255
46.1339 95.4964 -70.8784  255 255 255
55.7093 27.0341 22.4068  255 255 255
-52.3904 67.9225 -19.5394  255 255 255
37.0703 92.335 -66.7749  255 255 255
48.896 54.6791 -15.9716  255 255 255
35.2693 92.0969 -66.4259  255 255 255
-51.1152 67.3565 -20.8125  255 255 255
51.0172 51.0053 -13.6289  255 255 255
52.4783 29.0171 16.7456  255 255 255
41.0574 91.5943 -70.3037  255 255 255
24.4381 87.2364 -62.329  255 255 255
-28.7534 72.4724 -33.9722  255 255 255
55.0595 44.8698 -7.99628  255 255 255
55.0595 44.8698 -7.99628  255 255 255
-6.16665 77.2181 -47.3253  255 255 255
50.3046 29.7034 12.1661  255 255 255
52.1922 27.9581 14.2175  255 255 255
29.3755 86.3537 -66.7368  255 255 255
50.3016 48.0461 -17.0447  255 255 255
54.2505 23.6593 16.7713  255 255 255
-48.0712 64.2824 -25.7551  255 255 255
20.5565 81.7254 -64.3432  255 255 255
29.9443 83.6414 -69.1734  255 255 255
23.8943 81.6569 -66.0791  255 255 255
52.9954 42.3495 -14.1868  255 255 255
-42.1802 64.0203 -30.8146  255 255 255
-42.1873 64.0605 -30.7715  255 255 255
57.1815 86.7029 -86.4546  255 255 255
54.0763 20.5558 14.2032  255 255 255
-29.3569 65.6645 -39.685  255 255 255
58.243 14.9052 20.1719  255 255 255
15.2602 75.4206 -65.5801  255 255 255
56.5053 34.4851 -10.6333  255 255 255
58.5152 13.8889 19.8945  255 255 255
-1.21988 70.7111 -57.0762  255 255 255
-25.4302 64.7926 -43.0645  255 255 255
54.8573 36.1097 -14.9363  255 255 255
82.747 89.0331 -104.733  255 255 255
62.2021 82.4518 -94.1059  255 255 255
38.5653 77.8587 -81.9571  255 255 255
55.2412 15.3651 13.7579  255 255 255
6.67763 69.2829 -64.0407  255 255 255
53.5531 16.5042 10.746  255 255 255
53.2488 16.3103 11.067  255 255 255
56.46 29.8515 -12.6507  255 255 255
49.2469 38.3262 -25.4337  255 255 255
39.3922 74.5849 -84.7678  255 255 255
56.0285 11.8294 12.755  255 255 255
50.6578 16.0127 3.65577  255 255 255
51.4924 31.2262 -24.3412  255 255 255
52.2909 30.1377 -23.1866  255 255 255
57.4627 6.14945 12.7589  255 255 255
52.8756 26.4471 -24.0287  255 255 255
49.0856 30.6459 -30.8661  255 255 255
49.3759 30.8529 -31.2946  255 255 255
52.2792 10.2381 3.40582  255 255 255
40.4873 65.9599 -93.7885  255 255 255
49.8229 11.7281 -1.25868  255 255 255
19.3587 61.1994 -81.8853  255 255 255
55.1256 20.9046 -20.7052  255 255 255
-23.6815 52.7725 -55.4824  255 255 255
49.826 26.755 -31.1819  255 255 255
52.3367 7.99518 2.1061  255 255 255
52.1233 8.25416 1.69036  255 255 255
53.0005 22.9993 -26.2705  255 255 255
51.4749 8.36235 0.4288  255 255 255
51.4262 8.36042 0.481261  255 255 255
57.4563 1.96771 9.92368  255 255 255
56.0958 2.38287 6.81888  255 255 255
29.9161 58.6879 -90.8014  255 255 255
60.7323 -2.65278 13.709  255 255 255
23.809 57.029 -88.4055  255 255 255
54.3953 18.3831 -26.236  255 255 255
59.9254 -3.77439 11.2909  255 255 255
-12.0458 49.9082 -67.4542  255 255 255
61.116 -5.32099 12.9331  255 255 255
63.5263 -7.33389 15.8001  255 255 255
61.2374 -5.67037 13.2698  255 255 255
51.5752 3.7329 -2.0555  255 255 255
51.5018 3.66885 -2.48267  255 255 255
59.736 -4.56087 10.3308  255 255 255
53.4125 1.53244 0.312235  255 255 255
57.9425 -3.96044 7.45323  255 255 255
51.691 1.75468 -3.55832  255 255 255
59.8433 -6.61575 9.28061  255 255 255
56.9703 -4.04707 4.6152  255 255 255
57.0222 -4.30124 4.73756  255 255 255
54.8168 -2.30527 0.874637  255 255 255
-11.2149 45.844 -71.5978  255 255 255
-11.2149 45.844 -71.5978  255 255 255
68.1988 -16.7225 22.3046  255 255 255
61.7413 -10.4253 11.2363  255 255 255
4.59034 46.318 -83.5248  255 255 255
-9.0343 44.4097 -74.3139  255 255 255
59.3973 -8.4775 7.10058  255 255 255
54.3895 -3.46429 -1.1996  255 255 255
54.3831 -3.4593 -1.1977  255 255 255
57.7446 -6.59096 3.1453  255 255 255
69.3524 -19.0615 23.0567  255 255 255
-0.32151 44.0353 -81.1128  255 255 255
56.5636 -7.02023 1.68746  255 255 255
-10.5929 -7.12597 31.1737  255 255 255
-12.1979 -6.39909 29.7043  255 255 255
58.1522 -9.06556 3.75293  255 255 255
56.4416 -7.58128 0.800966  255 255 255
59.8817 -11.263 6.14411  255 255 255
69.3941 -20.8562 22.3093  255 255 255
60.861 -12.2963 7.86273  255 255 255
60.0601 -11.6521 6.32349  255 255 255
-7.52922 -10.3143 34.2633  255 255 255
59.2309 -11.1695 4.65463  255 255 255
59.2055 -11.2958 4.31889  255 255 255
-0.459969 -13.2237 35.913  255 255 255
57.628 -10.2893 1.60314  255 255 255
6.45718 -14.3693 34.3764  255 255 255
70.3765 -23.2266 23.0346  255 255 255
61.3394 -14.1525 6.98178  255 255 255
-67.6761 -29.271 101.519  255 255 255
57.2768 -11.057 0.391005  255 255 255
-16.8973 -6.6174 25.7112  255 255 255
-14.9802 -8.39095 28.8859  255 255 255
58.2774 -12.4781 1.75885  255 255 255
61.5176 -15.4962 6.72915  255 255 255
57.4046 -12.0721 -0.133484  255 255 255
0.405392 -16.0193 36.1359  255 255 255
56.7308 -12.2142 -1.48021  255 255 255
-17.7025 -0.630958 9.60493  255 255 255
66.1739 -25.9256 24.5384  255 255 255
56.65 -12.1749 -2.2251  255 255 255
-17.0183 -8.63261 26.7799  255 255 255
7.03465 -17.3057 34.2147  255 255 255
58.2666 -14.4922 0.309422  255 255 255
59.6023 -15.7763 2.04526  255 255 255
59.9811 -16.2791 2.52613  255 255 255
57.1408 -13.8148 -1.98014  255 255 255
58.837 -16.5102 0.456427  255 255 255
-19.5065 -7.62076 21.5484  255 255 255
60.6357 -18.3628 2.56412  255 255 255
60.6222 -18.3384 2.54583  255 255 255
-17.8191 -10.6087 26.7243  255 255 255
16.9909 -19.348 28.2031  255 255 255
58.844 -17.3452 -0.411253  255 255 255
59.1782 -17.6549 -0.125377  255 255 255
-14.759 -13.6913 30.8181  255 255 255
-21.7457 -6.95288 17.3699  255 255 255
57.9236 -17.9394 -2.34709  255 255 255
-3.55947 -19.5817 35.7043  255 255 255
-10.3936 -17.3071 33.9172  255 255 255
23.4574 -22.4423 26.5439  255 255 255
-19.5021 -11.5527 24.1819  255 255 255
4.31428 -21.36 34.5261  255 255 255
-17.7784 -13.7313 27.579  255 255 255
59.8003 -21.6811 -0.846887  255 255 255
62.6158 -24.2566 3.13504  255 255 255
19.9466 -24.0792 28.898  255 255 255
21.3929 -24.75 29.5544  255 255 255
-6.98574 -20.9018 34.8368  255 255 255
-12.289 -18.8792 32.7057  255 255 255
64.0869 -27.4678 3.66134  255 255 255
57.1611 -21.5431 -7.22587  255 255 255
-8.87458 -20.9812 34.0017  255 255 255
-67.3869 -31.7884 98.903  255 255 255
-16.419 -19.9331 31.9779  255 255 255
11.4868 -28.0508 34.243  255 255 255
-14.1176 -22.2166 34.337  255 255 255
60.3428 -27.9863 -4.3864  255 255 255
60.5106 -27.9932 -4.54684  255 255 255
-16.4949 -21.5191 32.6518  255 255 255
-18.8723 -20.5015 31.0001  255 255 255
1.0113 -27.5455 35.8362  255 255 255
-68.0754 -32.2894 98.9057  255 255 255
70.1057 -37.4189 12.0534  255 255 255
-29.6101 -12.4195 13.9541  255 255 255
-7.86719 -25.6123 35.9039  255 255 255
-13.284 -24.0876 34.4442  255 255 255
-1.68691 -27.8155 35.8524  255 255 255
-25.8441 -18.1488 25.7559  255 255 255
-7.41878 -26.6556 35.5951  255 255 255
-7.06929 -26.8708 35.6901  255 255 255
-37.8352 4.64495 -35.0276  255 255 255
-9.38698 -26.3206 35.185  255 255 255
2.98946 -30.6327 37.8321  255 255 255
-24.8078 -20.3712 28.4275  255 255 255
67.6196 -37.4815 4.46005  255 255 255
-27.9022 -18.6598 24.3298  255 255 255
-23.708 -22.7122 31.2939  255 255 255
-4.31934 -30.1478 37.9678  255 255 255
-23.4967 -22.9609 31.5915  255 255 255
-23.4913 -23.1583 31.8157  255 255 255
-23.3363 -23.089 31.4778  255 255 255
5.09844 -32.639 37.1239  255 255 255
-14.0353 -27.3132 35.613  255 255 255
-15.2538 -28.1044 36.6231  255 255 255
-14.9506 -28.6996 37.037  255 255 255
-11.3156 -30.9103 36.6124  255 255 255
-28.6918 -21.283 20.4774  255 255 255
-13.4786 -30.3925 35.9442  255 255 255
-42.5539 -5.10342 -23.7775  255 255 255
47.5453 -40.6994 9.60927  255 255 255
-1.28573 -34.7944 35.7737  255 255 255
5.375 -36.3869 33.881  255 255 255
-44.5396 -6.83848 -21.6803  255 255 255
-42.2758 -7.96514 -20.4794  255 255 255
4.74925 -36.5974 33.6041  255 255 255
-26.5924 -24.4116 22.3892  255 255 255
-18.9752 -29.6354 31.3896  255 255 255
-10.3237 -33.7843 34.5215  255 255 255
-11.3346 -33.4811 34.2287  255 255 255
2.36373 -37.861 32.6877  255 255 255
-8.99631 -35.2753 33.341  255 255 255
-18.4923 -32.4437 29.5469  255 255 255
-21.3866 -31.3171 27.3219  255 255 255
-21.1836 -31.6191 27.3126  255 255 255
-7.54525 -37.3684 32.7497  255 255 255
-21.9354 -32.3627 25.9453  255 255 255
-8.98344 -37.8288 31.8309  255 255 255
-14.0568 222.577 -126.594  255 255 255
17.8931 135.095 -47.577  255 255 255
16.8302 134.939 -49.4994  255 255 255
-21.2321 118.063 -35.7212  255 255 255
17.8018 131.534 -52.215  255 255 255
-17.0041 116.447 -38.043  255 255 255
-21.1725 114.749 -37.9937  255 255 255
1.44369 114.034 -38.651  255 255 255
16.3661 126.302 -53.8427  255 255 255
-20.2956 113.368 -38.7845  255 255 255
96.2731 225.425 -169.008  255 255 255
-13.2498 108.704 -36.5662  255 255 255
-5.28226 110.704 -40.489  255 255 255
-13.4685 105.539 -35.2521  255 255 255
-11.2224 100.529 -34.2109  255 255 255
-9.75776 101.15 -34.9271  255 255 255
17.8543 111.832 -49.2173  255 255 255
-12.5539 101.475 -35.5251  255 255 255
-9.42011 96.8273 -33.371  255 255 255
1.35039 94.0994 -36.3016  255 255 255
12.4185 97.5529 -42.2558  255 255 255
19.7599 99.1484 -47.6354  255 255 255
2.79639 92.6981 -39.9907  255 255 255
-7.11899 86.9225 -36.2294  255 255 255
49.3274 103.292 -66.1637  255 255 255
38.6649 100.02 -61.3579  255 255 255
49.557 58.7095 -8.76345  255 255 255
-36.6162 76.7137 -24.1954  255 255 255
48.5827 38.9149 15.6649  255 255 255
-41.1538 74.8314 -22.0292  255 255 255
54.5167 52.036 -2.77069  255 255 255
54.5022 52.1643 -3.42302  255 255 255
50.1023 36.3356 17.261  255 255 255
19.7619 92.2121 -54.0132  255 255 255
-44.403 73.2513 -21.1038  255 255 255
17.8564 91.9837 -53.7232  255 255 255
49.4094 100.023 -69.1132  255 255 255
58.8136 101.991 -73.611  255 255 255
14.9885 90.0059 -52.3545  255 255 255
34.4084 95.5433 -62.7332  255 255 255
-23.0313 78.2765 -32.587  255 255 255
37.0749 93.6896 -66.1767  255 255 255
41.1417 94.2138 -68.6776  255 255 255
29.1978 90.7999 -62.5351  255 255 255
48.571 55.536 -16.2781  255 255 255
12.1305 86.1057 -53.827  255 255 255
52.8196 30.13 17.415  255 255 255
6.06099 83.7588 -51.4637  255 255 255
6.11126 83.8401 -51.5838  255 255 255
41.6293 92.1138 -70.4355  255 255 255
55.3183 95.7098 -78.0157  255 255 255
41.4516 91.048 -71.4158  255 255 255
-24.6845 72.9875 -36.868  255 255 255
-19.5415 73.7916 -39.5226  255 255 255
15.6946 81.6398 -59.7584  255 255 255
13.0305 80.0794 -59.0917  255 255 255
-20.2653 71.0681 -41.9446  255 255 255
56.0111 39.9958 -9.25557  255 255 255
-41.8919 65.2763 -30.043  255 255 255
-20.3658 70.6359 -42.5031  255 255 255
-46.786 63.5849 -27.9516  255 255 255
-25.1807 68.8084 -40.1311  255 255 255
48.5855 27.8128 6.36192  255 255 255
-30.5425 65.7809 -37.738  255 255 255
-24.8193 66.9692 -41.7839  255 255 255
47.2423 44.2312 -26.7719  255 255 255
49.4998 80.6939 -86.8411  255 255 255
56.2237 32.2353 -13.232  255 255 255
29.5497 73.3574 -78.0853  255 255 255
58.2598 10.5778 17.5404  255 255 255
58.2598 10.5778 17.5404  255 255 255
29.7639 72.9397 -79.3393  255 255 255
-5.02729 64.1338 -59.6415  255 255 255
53.1667 27.6276 -22.0308  255 255 255
53.1667 27.6276 -22.0308  255 255 255
53.1667 27.6276 -22.0308  255 255 255
58.5375 4.89752 14.1399  255 255 255
43.3751 67.3329 -93.3447  255 255 255
67.4457 67.5977 -106.179  255 255 255
66.6748 66.9635 -107.337  255 255 255
66.6748 66.9635 -107.337  255 255 255
-34.3733 50.9188 -48.2891  255 255 255
60.0844 -1.75986 15.1131  255 255 255
62.2063 -5.59688 15.7982  255 255 255
52.4864 4.14997 0.211589  255 255 255
4.6304 -6.6871 32.4695  255 255 255
3.03629 -7.60403 33.6431  255 255 255
-9.82132 -3.27356 28.825  255 255 255
-10.2301 -3.46148 28.798  255 255 255
-13.3893 45.7844 -71.6742  255 255 255
-1.70445 -7.74181 33.9224  255 255 255
-13.9731 45.7483 -71.7656  255 255 255
-5.40468 -6.60302 32.5818  255 255 255
1.03507 -10.0529 34.9928  255 255 255
55.1686 -5.2652 -0.345612  255 255 255
56.7512 -7.18256 2.13091  255 255 255
69.2462 -20.4188 22.2976  255 255 255
60.6404 -12.3209 7.23609  255 255 255
6.48399 -13.3069 34.3815  255 255 255
61.7476 -13.8565 8.52199  255 255 255
51.3076 -5.13436 -9.19952  255 255 255
-9.29412 -13.103 34.1799  255 255 255
59.9179 -15.3765 3.85048  255 255 255
60.0767 -16.0021 3.53374  255 255 255
70.9521 -26.7318 21.2676  255 255 255
-16.309 -10.2574 28.2957  255 255 255
61.0923 -17.9288 4.64711  255 255 255
-10.3376 -14.355 33.9006  255 255 255
-14.2837 -12.3306 30.8965  255 255 255
-5.58287 -16.4694 35.7009  255 255 255
66.9743 -24.0848 13.8749  255 255 255
66.9743 -24.0848 13.8749  255 255 255
-4.11132 -17.0112 35.9888  255 255 255
-13.3533 -13.803 31.8315  255 255 255
-19.8712 -6.00272 16.4505  255 255 255
7.7073 -19.6683 33.7306  255 255 255
56.9801 -15.9769 -3.63258  255 255 255
69.0521 -27.6772 16.3905  255 255 255
-19.3556 -10.9465 24.1928  255 255 255
-18.8195 -11.6711 25.7574  255 255 255
-19.2392 -11.2216 24.6056  255 255 255
59.5782 -19.9568 -0.991939  255 255 255
57.8169 -18.9727 -3.627  255 255 255
-9.88765 -18.3148 34.103  255 255 255
-66.8207 -30.8954 99.3822  255 255 255
-2.9805 -21.4093 35.298  255 255 255
17.9637 -25.761 31.0568  255 255 255
4.45745 -24.1881 34.9898  255 255 255
-5.00171 -22.5087 34.676  255 255 255
-67.1984 -31.5531 98.8901  255 255 255
-67.4123 -31.6218 99.0831  255 255 255
-67.5217 -31.6685 99.1214  255 255 255
-68.1658 -31.868 99.5941  255 255 255
-7.23948 -23.5118 35.3062  255 255 255
4.36824 -27.6073 35.6086  255 255 255
-14.1818 -22.4102 34.2009  255 255 255
-28.3952 -15.5812 23.2315  255 255 255
-36.9867 7.44384 -38.2676  255 255 255
7.02653 -29.9486 36.8788  255 255 255
-24.2629 -17.8403 25.346  255 255 255
-8.55825 -26.0782 35.4998  255 255 255
-15.9777 -23.5782 32.3075  255 255 255
-22.3299 -21.6396 29.7454  255 255 255
-23.3305 -21.3516 29.6165  255 255 255
-1.45589 -30.4362 38.1211  255 255 255
-17.6825 -24.6687 32.7561  255 255 255
-26.2681 -20.7379 26.7064  255 255 255
-6.71729 -29.7766 37.6866  255 255 255
2.53075 -32.6243 37.4241  255 255 255
-7.91517 -29.9027 37.9641  255 255 255
-8.26508 -30.1548 38.2369  255 255 255
-0.956693 -32.5452 37.8128  255 255 255
-8.74189 -31.6054 37.3905  255 255 255
-9.95746 -31.576 36.7396  255 255 255
-11.0164 -32.2019 35.6035  255 255 255
-13.5221 -31.6241 34.8086  255 255 255
-11.0414 -33.4014 34.4402  255 255 255
-13.1926 -32.9449 33.8634  255 255 255
-13.1926 -32.9449 33.8634  255 255 255
-5.51556 -36.2901 34.5297  255 255 255
-40.9125 -14.3934 -13.2591  255 255 255
-41.3544 -13.2725 -17.3209  255 255 255
-11.197 -35.9581 32.1717  255 255 255
-12.5537 -35.9323 31.5642  255 255 255
-6.37172 -39.0325 31.9411  255 255 255
-44.4643 -16.8654 -15.3624  255 255 255
-14.2479 216.988 -130.345  255 255 255
-21.2239 121.65 -33.68  255 255 255
16.8493 135.8 -49.0451  255 255 255
16.9943 133.614 -50.2114  255 255 255
17.8528 128.604 -54.4621  255 255 255
21.8952 113.843 -51.4064  255 255 255
-13.7735 101.927 -36.9368  255 255 255
-10.0232 98.2256 -33.5443  255 255 255
-45.5379 86.5332 -20.0969  255 255 255
-7.32775 93.1138 -32.527  255 255 255
-46.6207 85.4785 -20.5149  255 255 255
8.86418 96.7287 -40.3277  255 255 255
9.62932 96.2713 -41.3518  255 255 255
36.7483 102.968 -55.5869  255 255 255
30.9186 101.343 -53.288  255 255 255
63.9491 108.011 -72.594  255 255 255
42.7882 101.598 -63.4865  255 255 255
81.3616 113.82 -84.1977  255 255 255
-43.8461 74.5227 -20.3059  255 255 255
9.99206 90.0176 -47.8989  255 255 255
16.9602 91.2208 -53.1478  255 255 255
50.4078 35.9427 16.8685  255 255 255
54.2361 31.1183 20.9919  255 255 255
-55.7585 68.4302 -16.4922  255 255 255
11.327 86.9286 -52.8549  255 255 255
-33.4897 73.3628 -29.7599  255 255 255
63.8069 99.5553 -79.7642  255 255 255
6.58756 84.2772 -51.1159  255 255 255
37.2364 91.8887 -67.0565  255 255 255
-13.9272 77.6745 -41.1918  255 255 255
54.147 46.0945 -9.6821  255 255 255
51.4544 48.5465 -13.565  255 255 255
65.5969 95.6988 -85.3302  255 255 255
54.8957 92.3727 -79.5997  255 255 255
6.88603 80.228 -55.3196  255 255 255
-49.8538 64.4114 -24.4824  255 255 255
38.7521 86.5718 -74.4641  255 255 255
57.5612 90.1524 -84.4902  255 255 255
51.8752 43.9869 -14.8615  255 255 255
51.9147 43.5706 -16.4094  255 255 255
54.8272 88.1503 -83.8547  255 255 255
19.041 78.8208 -64.858  255 255 255
56.7644 18.6748 19.0074  255 255 255
-29.2365 66.4883 -39.3149  255 255 255
-22.3641 67.9964 -43.1924  255 255 255
40.614 81.4405 -78.7666  255 255 255
47.7969 44.203 -24.8118  255 255 255
46.0002 80.8963 -83.4159  255 255 255
56.3779 82.8602 -89.0651  255 255 255
-0.11762 69.9921 -58.564  255 255 255
51.8802 81.5944 -88.3885  255 255 255
58.6795 12.6963 19.1948  255 255 255
81.9672 87.4893 -104.864  255 255 255
34.6701 76.8558 -79.2048  255 255 255
57.7912 11.6373 19.3339  255 255 255
56.4067 80.5558 -92.992  255 255 255
75.5426 83.1218 -103.869  255 255 255
63.3178 79.2829 -97.9428  255 255 255
15.9102 70.2891 -71.7876  255 255 255
15.9102 70.2891 -71.7876  255 255 255
55.4748 26.4587 -18.4653  255 255 255
55.8584 25.8864 -17.7938  255 255 255
-39.9226 54.2871 -41.4523  255 255 255
7.83486 59.7609 -66.7229  255 255 255
20.2941 63.3975 -83.0249  255 255 255
47.7934 14.0079 -4.9901  255 255 255
54.9715 21.23 -22.62  255 255 255
48.1187 64.5712 -100.629  255 255 255
23.2691 58.7094 -86.982  255 255 255
66.5962 -9.69357 23.0217  255 255 255
-30.4325 47.9255 -54.7161  255 255 255
57.8697 -1.12571 8.7154  255 255 255
61.8398 -5.59492 14.1748  255 255 255
-4.15176 1.89053 22.3424  255 255 255
60.8574 -6.1827 11.7725  255 255 255
3.86169 -6.84932 32.6862  255 255 255
5.14285 49.2484 -81.7763  255 255 255
3.16129 -9.4208 34.3135  255 255 255
50.2929 1.09366 -7.28216  255 255 255
-18.6257 42.3017 -65.815  255 255 255
68.9949 -18.3756 22.8052  255 255 255
16.4747 36.0715 -74.7012  255 255 255
-15.5152 -6.3004 27.1334  255 255 255
60.9674 -13.7995 7.23379  255 255 255
60.0961 -13.2984 5.09207  255 255 255
-15.6296 -7.05913 27.4725  255 255 255
-16.5173 -9.17906 27.6716  255 255 255
5.6807 -17.8251 34.827  255 255 255
-19.3272 -2.65539 12.1608  255 255 255
-17.2745 -10.0242 27.0492  255 255 255
-20.4615 0.455075 3.75184  255 255 255
-0.376302 -17.7098 36.0851  255 255 255
18.1573 -18.1524 26.5695  255 255 255
-20.9195 -4.01977 13.8484  255 255 255
-19.0858 -8.79224 23.7784  255 255 255
57.3344 -15.0853 -3.23572  255 255 255
69.6824 -28.4435 17.301  255 255 255
69.7387 -28.8104 17.44  255 255 255
-14.2996 -14.6106 31.4304  255 255 255
70.1421 -29.9847 17.2029  255 255 255
-67.9436 -31.0146 100.535  255 255 255
-18.7084 -13.295 26.2828  255 255 255
-66.8569 -30.9759 99.1949  255 255 255
3.83985 -22.5059 34.3639  255 255 255
-67.6518 -31.0603 99.6843  255 255 255
-17.3183 -15.4412 28.3615  255 255 255
-14.4154 -17.4307 31.2593  255 255 255
10.2998 -24.6339 33.8366  255 255 255
69.6807 -32.8642 14.6981  255 255 255
-21.424 10.6572 -42.9124  255 255 255
-67.7036 -31.5889 99.4929  255 255 255
-67.9174 -31.6343 99.6768  255 255 255
-15.3009 -19.7162 31.8369  255 255 255
-15.6845 -20.2109 32.2446  255 255 255
11.71 -28.7965 34.6608  255 255 255
16.1257 -29.9776 34.1971  255 255 255
-28.899 -16.4436 24.2118  255 255 255
-13.5782 -23.9906 34.242  255 255 255
68.0764 -36.8985 7.92438  255 255 255
5.89776 -31.4994 38.3218  255 255 255
67.5097 -37.0832 6.13308  255 255 255
4.96815 -31.7828 38.0718  255 255 255
-1.01413 -30.0983 37.6038  255 255 255
-24.8453 -21.5571 29.5651  255 255 255
-27.4494 -19.448 24.8426  255 255 255
-24.4523 -22.3408 30.6598  255 255 255
1.415 -31.8235 38.0334  255 255 255
-1.15318 -31.4489 38.6491  255 255 255
-12.7048 -28.1224 36.1248  255 255 255
-17.7127 -27.7107 34.5072  255 255 255
-17.6704 -27.7256 34.4514  255 255 255
53.4427 -40.0269 7.92636  255 255 255
-1.42264 -33.8322 36.7188  255 255 255
-23.2463 -26.2536 29.6922  255 255 255
-18.7142 -28.5234 32.4897  255 255 255
-27.1414 -23.498 22.6361  255 255 255
-19.5252 -28.3752 31.5264  255 255 255
-29.7968 -21.646 16.759  255 255 255
-15.8698 -31.2319 35.4545  255 255 255
-43.8599 -8.60733 -19.655  255 255 255
44.9674 -44.7623 13.9909  255 255 255
-19.8518 -31.0121 29.371  255 255 255
-21.3003 -31.0929 27.6069  255 255 255
-27.8495 -28.3752 23.5234  255 255 255
-21.5449 -31.4324 26.9336  255 255 255
-26.9606 -28.5192 21.2971  255 255 255
-42.0809 -16.037 -11.2467  255 255 255
-27.8324 -28.8729 22.4954  255 255 255
-43.3918 -17.2454 -9.87759  255 255 255
-13.7802 -36.3927 31.5953  255 255 255
17.1474 135.033 -47.7973  255 255 255
-13.1892 100.601 -36.5976  255 255 255
-12.8907 99.8905 -36.5787  255 255 255
-49.421 83.8925 -18.9757  255 255 255
33.5811 101.943 -54.2011  255 255 255
26.9932 96.6507 -55.8163  255 255 255
40.1639 100.621 -61.8797  255 255 255
49.4701 59.0086 -8.97003  255 255 255
-52.9838 71.1545 -16.1324  255 255 255
51.8989 55.6315 -8.00893  255 255 255
54.339 30.2299 23.4502  255 255 255
-43.773 71.6715 -22.5842  255 255 255
11.3685 87.4211 -51.2275  255 255 255
54.6716 97.8111 -75.4093  255 255 255
30.0843 91.0032 -62.8772  255 255 255
49.9094 53.4822 -14.4875  255 255 255
-42.0159 69.4495 -24.2407  255 255 255
51.9297 50.1251 -11.9882  255 255 255
25.9129 87.8243 -62.5003  255 255 255
55.7723 95.1408 -79.0606  255 255 255
81.1373 99.9542 -93.5662  255 255 255
53.2555 45.0811 -10.8869  255 255 255
10.0181 80.427 -57.0638  255 255 255
58.7279 93.0153 -83.2086  255 255 255
48.6861 49.5806 -19.9877  255 255 255
-18.6986 71.563 -43.0115  255 255 255
54.6884 89.5651 -82.4935  255 255 255
54.6235 40.263 -10.5649  255 255 255
55.906 39.9877 -13.2155  255 255 255
80.3105 90.5684 -101.005  255 255 255
56.6615 84.1553 -88.7451  255 255 255
64.8213 84.8014 -93.721  255 255 255
58.5549 82.7177 -91.1486  255 255 255
67.1828 83.7426 -95.2973  255 255 255
27.6165 75.2896 -74.9336  255 255 255
52.5229 79.8767 -89.6472  255 255 255
48.0489 40.984 -26.7783  255 255 255
41.7621 76.6658 -85.0173  255 255 255
57.9744 10.3196 18.7786  255 255 255
10.8025 68.2767 -69.2642  255 255 255
50.5702 34.7406 -25.0175  255 255 255
50.6436 34.7658 -25.1221  255 255 255
52.3469 12.7049 5.88968  255 255 255
50.4487 27.9804 -19.9548  255 255 255
21.1669 66.046 -78.4542  255 255 255
55.3889 25.5201 -18.8705  255 255 255
52.98 27.8459 -22.9921  255 255 255
69.4666 71.4668 -108.257  255 255 255
-18.7597 56.0967 -56.3424  255 255 255
51.425 26.1323 -28.4064  255 255 255
51.3291 26.0581 -28.2495  255 255 255
65.8272 67.4476 -108.75  255 255 255
67.0048 66.3719 -106.95  255 255 255
44.2324 63.5368 -97.1502  255 255 255
-25.8309 51.8001 -54.6216  255 255 255
-7.345 54.1933 -65.9222  255 255 255
7.7784 54.8133 -77.6315  255 255 255
57.9125 -0.313236 8.65204  255 255 255
57.3963 -0.383546 7.56777  255 255 255
3.10658 2.26443 21.3703  255 255 255
61.7919 -5.57159 15.3852  255 255 255
1.5453 -7.06981 33.6418  255 255 255
-9.63023 -3.96887 29.6776  255 255 255
-12.0427 -2.9223 27.1486  255 255 255
67.7808 -18.1556 20.1587  255 255 255
-12.6431 -5.77053 29.176  255 255 255
-2.97154 -10.6805 35.3021  255 255 255
-4.06818 -10.4642 35.0746  255 255 255
-4.89315 -11.6216 35.3248  255 255 255
69.6745 -21.6378 22.3458  255 255 255
59.9042 -13.5181 4.55193  255 255 255
-17.4279 -9.02003 26.7119  255 255 255
58.8954 -15.6831 0.707915  255 255 255
-15.6935 -11.517 29.5436  255 255 255
61.4503 -18.932 4.0642  255 255 255
61.4503 -18.932 4.0642  255 255 255
-3.43261 -17.604 35.4176  255 255 255
-16.1765 -12.6581 30.1892  255 255 255
-24.4795 -2.11484 7.35696  255 255 255
70.2827 -29.1868 17.8889  255 255 255
-19.021 -10.9938 25.1084  255 255 255
-17.5907 -13.0484 27.6875  255 255 255
69.6262 -29.9721 15.8841  255 255 255
0.421247 -22.4057 34.298  255 255 255
-16.9601 -19.5058 31.6805  255 255 255
-9.8412 -22.6766 34.6861  255 255 255
-7.77647 -23.4907 35.5046  255 255 255
-9.91786 -23.2318 35.1671  255 255 255
-67.6237 -32.0987 98.4835  255 255 255
-66.9855 -31.9606 97.5409  255 255 255
-66.9855 -31.9606 97.5409  255 255 255
-6.49936 -26.5838 36.0041  255 255 255
-30.3452 -16.7611 23.2574  255 255 255
-22.6287 -21.3653 29.6402  255 255 255
-29.0386 -14.5188 13.0886  255 255 255
-25.5237 -20.7143 28.6804  255 255 255
-36.0972 0.205949 -29.9567  255 255 255
-38.2724 0.0474183 -29.8793  255 255 255
-14.502 -27.3124 35.4418  255 255 255
-11.1104 -29.2176 37.6805  255 255 255
-43.6622 -5.89218 -22.7643  255 255 255
-0.472823 -37.0782 33.6625  255 255 255
-24.0315 -28.9421 27.4116  255 255 255
-10.8246 -34.3519 33.334  255 255 255
-24.2893 -29.4077 26.1703  255 255 255
-11.0899 -36.7557 31.6073  255 255 255
-5.59358 -38.7954 32.4316  255 255 255
-8.84633 -37.7344 32.1626  255 255 255
-26.5886 -30.0665 20.5672  255 255 255
16.1266 134.272 -49.7807  255 255 255
15.5012 134.865 -52.729  255 255 255
-12.5256 100.365 -35.818  255 255 255
-8.78563 98.3216 -33.8825  255 255 255
-22.1578 95.2923 -31.8105  255 255 255
-2.27395 92.6106 -37.8343  255 255 255
25.1584 99.5892 -50.3997  255 255 255
23.4134 99.9837 -51.2613  255 255 255
50.3012 62.0888 -8.52952  255 255 255
-7.84888 85.8616 -38.2389  255 255 255
49.6252 57.6278 -12.5805  255 255 255
-55.6636 67.6965 -17.1648  255 255 255
-48.813 68.3355 -21.8702  255 255 255
49.6378 33.1631 13.3198  255 255 255
9.78619 81.9577 -55.5922  255 255 255
56.3267 42.3448 -6.71254  255 255 255
56.3851 91.8969 -82.0128  255 255 255
13.2929 77.5246 -62.1519  255 255 255
-41.2769 62.8028 -32.6349  255 255 255
54.549 35.7147 -14.6709  255 255 255
48.7473 41.7655 -24.606  255 255 255
48.7473 41.7655 -24.606  255 255 255
49.9044 17.1052 8.35975  255 255 255
-31.3937 58.15 -44.9039  255 255 255
59.9426 8.61777 14.9249  255 255 255
63.0306 56.2574 -70.095  255 255 255
54.8112 26.6041 -20.0507  255 255 255
51.6993 11.0075 2.34295  255 255 255
49.2815 12.8152 -3.29346  255 255 255
52.0036 6.96178 0.64111  255 255 255
51.0733 7.36085 -1.39493  255 255 255
51.0886 7.3665 -1.42846  255 255 255
50.8977 7.28168 -1.1682  255 255 255
-8.51313 49.6156 -69.8656  255 255 255
57.7603 -1.85191 5.96781  255 255 255
50.6897 4.47683 -4.67063  255 255 255
50.298 4.49581 -3.70732  255 255 255
-7.93825 49.4671 -73.827  255 255 255
-8.69149 48.3725 -71.2504  255 255 255
6.81538 49.5356 -80.5272  255 255 255
-8.57956 47.5206 -72.8872  255 255 255
-8.57956 47.5206 -72.8872  255 255 255
-4.25163 49.6069 -79.4672  255 255 255
58.9248 -9.35622 5.0604  255 255 255
68.7766 -19.5746 21.8758  255 255 255
-17.9832 -6.21159 23.8191  255 255 255
-2.77111 -15.3334 35.8957  255 255 255
-18.0094 -9.44142 25.8939  255 255 255
69.9419 -29.1498 17.1959  255 255 255
0.769423 -20.28 35.5464  255 255 255
-8.03742 -18.1903 34.8806  255 255 255
70.3888 -31.8797 16.1164  255 255 255
68.3083 -30.111 12.6683  255 255 255
-15.3115 -17.0637 30.5691  255 255 255
-26.4352 -9.64001 15.9859  255 255 255
-67.3288 -31.4757 99.0981  255 255 255
-13.737 -19.9343 31.9607  255 255 255
2.72606 -27.2722 35.8203  255 255 255
-28.9063 -12.638 16.8218  255 255 255
69.3455 -36.4276 11.0282  255 255 255
69.3082 -36.9954 10.5773  255 255 255
68.1406 -37.5081 7.44589  255 255 255
-39.2547 1.67608 -31.7561  255 255 255
-23.4878 -22.7566 31.0461  255 255 255
-9.58917 -28.8712 37.0594  255 255 255
-18.798 -28.0982 32.823  255 255 255
-38.008 -11.2648 -17.4923  255 255 255
-18.9129 -32.5319 29.0895  255 255 255
-18.9129 -32.5319 29.0895  255 255 255
-22.5009 -31.0272 26.4788  255 255 255
-21.9865 117.267 -38.4839  255 255 255
-20.4442 114.757 -37.7971  255 255 255
0.854057 114.426 -38.5594  255 255 255
-45.8775 91.2856 -15.7163  255 255 255
15.0525 112.978 -48.4537  255 255 255
-2.6909 102.349 -37.7059  255 255 255
-2.6909 102.349 -37.7059  255 255 255
-9.33015 95.2787 -33.3394  255 255 255
-7.3529 91.4595 -33.2825  255 255 255
-15.9702 83.903 -32.2057  255 255 255
52.4309 54.5604 -7.2858  255 255 255
-2.78471 83.8522 -43.9455  255 255 255
-27.6095 67.4846 -39.5482  255 255 255
79.5463 89.3416 -101.769  255 255 255
6.23781 68.3739 -66.9586  255 255 255
49.0134 35.4684 -27.9463  255 255 255
-9.70424 61.9009 -58.6909  255 255 255
49.0427 17.0929 1.74273  255 255 255
33.3085 62.9584 -93.47  255 255 255
52.5317 23.3685 -27.1026  255 255 255
35.8086 61.4791 -94.473  255 255 255
46.6444 9.17559 -9.15153  255 255 255
49.9181 5.26505 -4.47927  255 255 255
63.5691 -9.25965 16.057  255 255 255
68.8145 -16.6293 24.1828  255 255 255
49.6677 1.35144 -4.82398  255 255 255
68.7304 -18.0916 22.2866  255 255 255
-15.0883 -4.69368 26.0627  255 255 255
-4.83265 -12.1028 34.6597  255 255 255
-5.12572 -13.0193 35.4453  255 255 255
67.79 -21.6048 18.0556  255 255 255
-16.9961 -7.7239 26.4095  255 255 255
-8.72413 -13.5729 34.287  255 255 255
-4.72418 -15.1782 35.7896  255 255 255
-13.9979 -12.2822 31.2599  255 255 255
0.789968 -19.2983 35.7393  255 255 255
-16.5556 -13.2206 28.8923  255 255 255
-28.5915 -11.824 18.9937  255 255 255
-67.2405 -31.7748 98.5905  255 255 255
-29.0904 -14.4327 20.6156  255 255 255
69.895 -37.5079 11.1662  255 255 255
69.895 -37.5079 11.1662  255 255 255
-33.6367 3.92368 -34.4411  255 255 255
-25.7678 -19.4416 27.6702  255 255 255
-22.5531 -23.1965 31.6026  255 255 255
-5.26158 -29.9111 37.5397  255 255 255
-19.1698 -25.3432 33.6216  255 255 255
-7.97439 -34.4548 35.0374  255 255 255
-39.6643 -12.035 -16.2392  255 255 255
-20.0279 -31.7537 28.6112  255 255 255
-0.484158 105.502 -39.6642  255 255 255
4.988 105.063 -41.4595  255 255 255
-42.3767 74.8322 -21.1269  255 255 255
52.8774 33.0854 20.927  255 255 255
27.4953 93.8642 -58.9389  255 255 255
56.447 28.1401 21.1699  255 255 255
-11.0812 76.1966 -41.7588  255 255 255
48.8275 52.5565 -17.3514  255 255 255
57.4806 89.4858 -83.3592  255 255 255
46.4459 80.0387 -85.3646  255 255 255
55.2526 9.40751 9.77603  255 255 255
-3.67887 54.1363 -70.9398  255 255 255
-4.02855 53.1554 -73.1417  255 255 255
-8.00549 -7.50432 33.0704  255 255 255
69.7008 -19.6968 23.6509  255 255 255
-9.17904 -7.64691 32.3264  255 255 255
-0.647773 -10.8516 35.23  255 255 255
51.5607 -2.09915 -6.25172  255 255 255
-9.90405 -9.33267 32.6878  255 255 255
-9.92212 -9.31496 32.6093  255 255 255
-15.8523 -6.22322 26.6971  255 255 255
-19.3573 -6.7268 20.4975  255 255 255
-18.2135 -10.5745 26.1937  255 255 255
0.959493 -21.3422 35.2834  255 255 255
-67.1216 -31.1616 99.1806  255 255 255
-10.3495 -23.3496 35.2307  255 255 255
-21.5342 -23.8505 32.1124  255 255 255
-17.5002 -26.304 34.6749  255 255 255
-16.9044 -26.7122 35.3233  255 255 255
-14.3269 -32.914 33.6682  255 255 255
-28.0076 -25.8018 19.1454  255 255 255
-41.3876 -13.9465 -16.5992  255 255 255
-42.8506 -15.5704 -12.2531  255 255 255
19.543 98.652 -49.6201  255 255 255
-7.64513 86.6419 -36.6071  255 255 255
-45.7204 73.8248 -19.4553  255 255 255
-55.8291 70.5157 -14.777  255 255 255
82.2999 96.8708 -97.2608  255 255 255
59.7634 0.00739078 14.747  255 255 255
-13.7329 -2.38885 24.9282  255 255 255
-18.5673 -5.79633 21.9442  255 255 255
-68.4994 -32.0556 100.11  255 255 255
-67.1843 -33.3685 96.3468  255 255 255
-27.244 -26.2297 25.0723  255 255 255
-20.0448 -31.2111 29.2101  255 255 255
49.2561 31.1923 14.5701  255 255 255
27.2555 84.1619 -65.8842  255 255 255
65.5534 81.553 -97.6767  255 255 255
-7.81864 65.1179 -55.6102  255 255 255
54.8924 70.7238 -100.623  255 255 255
6.48735 55.1315 -76.9359  255 255 255
8.04944 50.5379 -80.5584  255 255 255
-7.37361 -10.7896 34.4377  255 255 255
-14.7604 -28.2289 36.8034  255 255 255
9.42109 97.1679 -41.6028  255 255 255
50.4114 79.3473 -87.2843  255 255 255
0.468284 -13.2212 36.1456  255 255 255
-14.9811 -13.6705 30.5097  255 255 255
-68.3211 -31.3473 101.044  255 255 255
-14.0413 -21.0627 33.3724  255 255 255
69.7267 -35.4673 11.8089  255 255 255
1.23232 -34.2365 35.9953  255 255 255
1.2468 -34.2659 36.0307  255 255 255
-27.976 -26.1506 19.3914  255 255 255
5.85197 93.592 -43.4324  255 255 255
-67.9223 -31.7007 99.4935  255 255 255
30.2846 78.4409 -73.4777  255 255 255
-14.4127 -9.80225 29.7128  255 255 255
-2.82299 84.9453 -43.1795  255 255 255
-40.2705 69.6732 -27.3215  255 255 255
17.2565 76.6499 -70.5617  255 255 255
-25.8326 79.5737 -34.4825  255 255 255
-75.4507 -1.82777 97.6125  255 255 255
-69.343 -18.7228 96.81  255 255 255
-151.097 63.7666 -94.2  255 255 255
-149.878 64.6079 -95.5822  255 255 255
-155.372 89.6038 -110.383  255 255 255
-135.59 112.547 -60.2888  255 255 255
-118.654 94.1924 -43.2843  255 255 255
-120.89 61.1813 -70.373  255 255 255
-119.199 106.4 -45.8778  255 255 255
-110.477 81.1454 -36.8805  255 255 255
-106.287 87.315 -24.1669  255 255 255
-106.534 84.4517 -27.8994  255 255 255
-105.98 71.98 -35.2971  255 255 255
-131.527 147.292 -68.7722  255 255 255
-103.705 41.7108 -52.6379  255 255 255
-99.5542 59.4145 -32.9322  255 255 255
-112.909 117.237 -47.8467  255 255 255
-113.648 118.597 -49.9396  255 255 255
-113.312 117.509 -52.4314  255 255 255
-110.864 115.657 -47.9497  255 255 255
-113.027 122.754 -51.6225  255 255 255
-89.8378 66.2766 -10.3862  255 255 255
-89.8378 66.2766 -10.3862  255 255 255
-89.1584 49.8025 -20.643  255 255 255
-88.5031 63.5943 -9.71436  255 255 255
-114.454 143.384 -58.3906  255 255 255
-85.2725 32.1107 -27.1823  255 255 255
-81.6469 63.0497 1.13437  255 255 255
-102.445 116.023 -41.1369  255 255 255
-108.985 123.632 -66.8675  255 255 255
-81.3107 47.5479 -10.0047  255 255 255
-100.804 115.087 -40.5093  255 255 255
-82.7584 35.9127 -25.9666  255 255 255
-100.828 116.877 -42.2634  255 255 255
-82.2534 30.216 -30.365  255 255 255
-80.8037 59.9898 -5.46024  255 255 255
-79.8323 64.3338 -0.930315  255 255 255
-95.6841 106.003 -32.9595  255 255 255
-81.2097 26.8205 -34.7113  255 255 255
-80.6493 69.5923 -3.9362  255 255 255
-97.9618 123.519 -36.9791  255 255 255
-80.4722 32.4402 -29.4724  255 255 255
-58.4831 -35.6021 10.7465  255 255 255
-80.5319 23.3551 -38.3106  255 255 255
-96.3617 126.499 -32.2155  255 255 255
-58.2361 -33.9857 10.8874  255 255 255
-96.9157 118.737 -42.3945  255 255 255
-96.9163 117.989 -43.2939  255 255 255
-57.8951 -35.0495 10.8005  255 255 255
-79.5789 72.6624 -4.63796  255 255 255
-95.5518 117.28 -42.7682  255 255 255
-95.7782 122.594 -40.8714  255 255 255
-95.2954 121.163 -38.8669  255 255 255
-78.9596 29.1671 -35.417  255 255 255
-79.114 24.3002 -40.599  255 255 255
-95.1095 119.145 -43.3566  255 255 255
-78.2789 20.0612 -42.1913  255 255 255
-77.0735 45.4473 -21.6644  255 255 255
-94.4169 124.902 -40.6229  255 255 255
-76.2392 42.91 -23.9414  255 255 255
-76.5585 33.3342 -32.5615  255 255 255
-76.0222 48.845 -19.2437  255 255 255
-78.0915 80.1326 -6.01197  255 255 255
-80.453 89.5352 -12.8623  255 255 255
-74.6492 51.9289 -15.4242  255 255 255
-78.8754 79.7571 -14.7235  255 255 255
-73.4809 66.2534 -3.78792  255 255 255
-74.3715 31.6015 -34.0782  255 255 255
-77.1421 84.5888 -9.52111  255 255 255
-79.5866 93.9349 -15.3781  255 255 255
-73.9587 71.2088 -5.8716  255 255 255
-72.2298 55.2503 -7.64966  255 255 255
-72.6864 65.07 -7.03921  255 255 255
-76.3462 87.897 -10.7616  255 255 255
-71.944 65.7571 -6.75156  255 255 255
-66.2189 -0.196459 -28.6587  255 255 255
-69.6447 61.4974 -0.850105  255 255 255
-71.9098 69.6798 -5.9971  255 255 255
-72.3223 35.3205 -36.1314  255 255 255
-72.3887 74.3395 -7.3486  255 255 255
-70.9373 35.0578 -35.0114  255 255 255
-70.2012 55.2348 -16.3407  255 255 255
-65.9323 58.6203 9.39188  255 255 255
-70.927 38.7859 -34.4848  255 255 255
-70.927 38.7859 -34.4848  255 255 255
-69.5219 64.1306 -9.96419  255 255 255
-74.7637 90.8281 -18.6847  255 255 255
-69.818 39.185 -33.3473  255 255 255
-68.6996 56.8243 -20.3045  255 255 255
-47.4997 -41.4988 17.5804  255 255 255
-74.3126 100.531 -15.9775  255 255 255
-73.2587 96.9794 -14.9926  255 255 255
-73.9892 100.965 -15.9475  255 255 255
-72.9339 98.6614 -15.2092  255 255 255
-82.8269 138.726 -50.8842  255 255 255
-64.2877 66.1427 -1.10677  255 255 255
-66.1672 27.2612 -45.5616  255 255 255
-65.734 38.0492 -36.0451  255 255 255
-65.3924 58.7503 -17.6617  255 255 255
-65.3924 58.7503 -17.6617  255 255 255
-53.1379 -17.6916 -8.82085  255 255 255
-80.7857 135.006 -49.3028  255 255 255
-80.2348 134.333 -50.2645  255 255 255
-43.5528 -45.3602 21.8977  255 255 255
-64.2968 61.4231 -16.7368  255 255 255
-51.4507 -19.7541 -7.04142  255 255 255
-51.8297 -17.494 -8.62168  255 255 255
-69.2232 103.913 -18.1435  255 255 255
-61.7528 45.6791 -33.9841  255 255 255
-61.5558 69.1972 -10.907  255 255 255
-77.6648 144.012 -56.2524  255 255 255
-49.4406 -18.4322 -7.69178  255 255 255
-77.8786 147.11 -58.1471  255 255 255
-58.1318 13.2298 -45.5357  255 255 255
-60.2882 64.9073 -15.5812  255 255 255
-64.6571 96.42 -18.088  255 255 255
-64.7566 96.6793 -18.3653  255 255 255
-59.4306 31.3417 -47.3818  255 255 255
-50.9057 -1.04286 -28.1115  255 255 255
-38.0974 -50.0698 26.4263  255 255 255
-57.4993 67.6045 -16.0784  255 255 255
-57.1939 59.1896 -23.6259  255 255 255
-57.2881 67.2328 -16.7643  255 255 255
-70.7126 141.966 -59.2945  255 255 255
-71.94 150.07 -62.3354  255 255 255
-48.0939 -6.29321 -22.3711  255 255 255
-46.0245 -9.9939 -17.4007  255 255 255
-36.1306 -49.1859 28.0931  255 255 255
-33.3724 -61.3121 39.6509  255 255 255
-55.394 122.508 -26.4912  255 255 255
-67.2345 152.795 -66.0073  255 255 255
-52.5562 45.8007 -39.797  255 255 255
-51.4596 33.6039 -50.8536  255 255 255
-64.0221 145.914 -63.2808  255 255 255
-51.1299 50.4765 -37.6035  255 255 255
-31.1929 -63.087 40.74  255 255 255
-41.88 -8.62177 -19.9459  255 255 255
-42.3248 -8.40448 -24.0583  255 255 255
-49.4871 60.3157 -29.4795  255 255 255
-59.8939 143.474 -63.1993  255 255 255
-48.4667 60.8384 -30.1907  255 255 255
-48.3663 63.9628 -25.7598  255 255 255
-48.467 71.1191 -20.4562  255 255 255
-43.166 9.49399 -40.3535  255 255 255
-58.6793 143.48 -63.1833  255 255 255
-29.1995 -61.3852 38.8115  255 255 255
-44.521 42.104 -47.8348  255 255 255
-28.6831 -63.5249 41.3854  255 255 255
-44.5049 61.6044 -33.4041  255 255 255
-52.2612 145.629 -66.6693  255 255 255
-43.3567 90.4142 -18.2576  255 255 255
-40.4182 66.8162 -28.9876  255 255 255
-25.7228 -55.8573 32.734  255 255 255
-36.2951 66.9775 -33.1733  255 255 255
-24.4167 -62.2315 38.9902  255 255 255
-28.0403 -17.9331 23.7515  255 255 255
-23.9554 -64.8613 42.5201  255 255 255
-24.2161 -61.8604 39.3075  255 255 255
-28.1432 -15.2629 22.773  255 255 255
-30.9313 44.5471 -56.5738  255 255 255
-25.5345 -30.9044 21.1684  255 255 255
-22.7044 -60.7356 38.6088  255 255 255
-26.5393 -6.40848 12.4738  255 255 255
-22.1566 -64.7983 41.9949  255 255 255
-24.9235 -22.2464 29.2154  255 255 255
-22.2539 -58.0881 34.9242  255 255 255
-25.5919 -4.70536 10.4849  255 255 255
-33.449 118.508 -36.5227  255 255 255
-24.5654 -23.4081 31.6792  255 255 255
-25.2707 -7.01404 13.4027  255 255 255
-21.85 -57.9479 34.7258  255 255 255
-32.2892 117.385 -35.0379  255 255 255
-21.6232 -55.5792 31.4026  255 255 255
-21.2531 -61.5023 38.7286  255 255 255
-26.6793 57.6254 -48.7418  255 255 255
-25.9025 54.6273 -51.301  255 255 255
-21.0191 -55.6973 32.2947  255 255 255
-20.7563 -61.4026 38.7852  255 255 255
-24.845 47.9886 -57.6274  255 255 255
-24.7581 54.9287 -52.4113  255 255 255
-22.533 -9.43602 20.1504  255 255 255
-20.0425 -51.7024 29.2759  255 255 255
